# .PCD v0.7 - Point Cloud Data file format
VERSION 0.7
FIELDS x y z rgba
SIZE 4 4 4 4
TYPE F F F U
COUNT 1 1 1 1
WIDTH 1211
HEIGHT 1
VIEWPOINT 0 0 0 1 0 0 0
POINTS 1211
DATA ascii
412.57288 -416.685 21.072001 4294967295
412.23489 -416.65799 20.511 4294967295
410.1879 -416.505 17.841999 4294967295
410.46088 -416.517 17.768999 4294967295
410.4899 -416.51099 17.337999 4294967295
410.62589 -416.51498 17.152 4294967295
411.29489 -416.54999 17.201 4294967295
410.99091 -416.52298 16.563999 4294967295
411.0769 -416.52701 16.483 4294967295
415.11591 -416.763 18.082001 4294967295
413.29288 -416.64798 16.903 4294967295
411.43488 -416.53198 15.762 4294967295
411.0929 -416.49698 14.743 4294967295
415.7789 -416.767 16.396 4294967295
410.65289 -416.46298 14.127 4294967295
415.9119 -416.76498 15.922 4294967295
410.4679 -416.44901 13.854 4294967295
411.28488 -416.49399 14.028 4294967295
411.32089 -416.49399 13.929 4294967295
411.25888 -416.47598 13.056 4294967295
411.17191 -416.46899 12.934 4294967295
411.8559 -416.50299 12.857 4294967295
412.3389 -416.52701 12.831 4294967295
412.1199 -416.51099 12.569 4294967295
415.9769 -416.711 12.676 4294967295
415.92789 -416.703 12.36 4294967295
413.8959 -416.80499 22.148001 4294967295
412.66489 -416.71201 20.49 4294967295
414.50888 -416.79599 19.888 4294967295
410.9729 -416.565 17.118999 4294967295
411.27588 -416.582 17.188 4294967295
413.09689 -416.66599 16.641001 4294967295
411.15289 -416.54498 15.488 4294967295
411.1109 -416.54099 15.344 4294967295
410.92789 -416.52499 15.017 4294967295
410.90289 -416.522 14.889 4294967295
411.07489 -416.53 14.851 4294967295
411.27689 -416.53799 14.705 4294967295
415.7919 -416.79999 16.400999 4294967295
410.66788 -416.49799 14.238 4294967295
411.1059 -416.51801 14.076 4294967295
414.5629 -416.71399 15.126 4294967295
410.88589 -416.50198 13.789 4294967295
410.2229 -416.46201 13.479 4294967295
414.44888 -416.694 14.343 4294967295
410.67389 -416.48099 13.219 4294967295
410.67191 -416.479 13.12 4294967295
411.1409 -416.50101 13.029 4294967295
411.26288 -416.50598 12.953 4294967295
411.52588 -416.51898 12.901 4294967295
413.5199 -416.61899 12.778 4294967295
412.0629 -416.53699 12.339 4294967295
414.90588 -416.68399 12.41 4294967295
414.97589 -416.685 12.273 4294967295
415.2999 -416.694 11.861 4294967295
415.2699 -416.69 11.713 4294967295
412.72589 -416.78 22.211 4294967295
412.05688 -416.715 20.552 4294967295
412.44489 -416.73398 20.497999 4294967295
411.65988 -416.673 19.351999 4294967295
411.53088 -416.63998 17.839001 4294967295
412.31888 -416.67899 17.757 4294967295
415.0209 -416.84 19 4294967295
412.1879 -416.659 17.038 4294967295
412.96188 -416.69 16.568001 4294967295
411.47089 -416.582 14.785 4294967295
412.9809 -416.668 15.272 4294967295
410.1799 -416.492 13.465 4294967295
410.30988 -416.496 13.313 4294967295
410.51389 -416.50598 13.274 4294967295
415.90988 -416.797 14.088 4294967295
415.8649 -416.79199 13.918 4294967295
415.85788 -416.78799 13.757 4294967295
412.05988 -416.578 12.893 4294967295
412.1239 -416.578 12.68 4294967295
414.2869 -416.685 12.482 4294967295
415.04889 -416.72 12.279 4294967295
416.07889 -416.76898 12.059 4294967295
412.90088 -416.81598 21.891001 4294967295
412.4989 -416.784 21.229 4294967295
411.7579 -416.71399 19.441 4294967295
410.38989 -416.61798 18.021999 4294967295
411.4549 -416.65698 17.162001 4294967295
414.65088 -416.853 18.959999 4294967295
412.37289 -416.707 17.309 4294967295
412.2879 -416.69901 17.099001 4294967295
412.1499 -416.677 16.280001 4294967295
415.29089 -416.862 17.614 4294967295
410.8959 -416.57999 14.435 4294967295
410.93088 -416.57401 14.014 4294967295
411.02988 -416.578 13.94 4294967295
410.56589 -416.54099 13.189 4294967295
412.00089 -416.60898 12.882 4294967295
411.71088 -416.591 12.72 4294967295
416.07788 -416.819 13.001 4294967295
415.2269 -416.758 12.001 4294967295
412.72089 -416.845 22.205 4294967295
411.8909 -416.77798 20.825001 4294967295
412.73489 -416.832 21.473 4294967295
414.50488 -416.927 21.714001 4294967295
410.39389 -416.64798 17.867001 4294967295
410.4939 -416.65201 17.797001 4294967295
411.0929 -416.68298 17.819 4294967295
410.7189 -416.655 17.368999 4294967295
414.49188 -416.89301 19.874001 4294967295
411.1749 -416.67398 17.115 4294967295
411.43088 -416.685 16.997 4294967295
411.0889 -416.66098 16.628 4294967295
412.4129 -416.741 17.334999 4294967295
412.11688 -416.71799 16.843 4294967295
411.8819 -416.69998 16.556 4294967295
411.9379 -416.69901 16.304001 4294967295
412.36688 -416.72 16.254 4294967295
415.21088 -416.88901 17.573 4294967295
415.4599 -416.897 17.330999 4294967295
410.92789 -416.62399 15.015 4294967295
411.80389 -416.67398 15.3 4294967295
411.13788 -416.63199 14.878 4294967295
411.46188 -416.647 14.781 4294967295
410.8829 -416.61099 14.43 4294967295
415.99188 -416.896 15.776 4294967295
415.7139 -416.854 14.202 4294967295
415.89188 -416.858 13.922 4294967295
415.90289 -416.85498 13.765 4294967295
411.67191 -416.621 12.713 4294967295
413.4549 -416.715 12.894 4294967295
415.7529 -416.83099 12.802 4294967295
412.25488 -416.64301 12.249 4294967295
415.8299 -416.82898 12.502 4294967295
415.14688 -416.785 11.996 4294967295
412.9819 -416.85898 20.566 4294967295
414.53088 -416.95398 21.493 4294967295
413.3649 -416.87299 20.254999 4294967295
411.47189 -416.73199 17.794001 4294967295
411.4079 -416.72501 17.587999 4294967295
411.09888 -416.703 17.209 4294967295
411.3399 -416.71298 17.083 4294967295
411.36789 -416.70898 16.809999 4294967295
415.18188 -416.94098 18.9 4294967295
411.10788 -416.672 15.464 4294967295
411.0329 -416.66501 15.303 4294967295
411.3699 -416.67499 14.861 4294967295
412.6619 -416.74799 15.279 4294967295
410.68988 -416.62698 14.139 4294967295
416.02689 -416.92798 15.788 4294967295
412.06589 -416.685 13.462 4294967295
411.39688 -416.647 13.191 4294967295
415.9249 -416.89301 14.09 4294967295
411.68689 -416.659 13.04 4294967295
416.03189 -416.879 12.994 4294967295
415.92191 -416.867 12.667 4294967295
415.8309 -416.85699 12.349 4294967295
412.67889 -416.89999 22.16 4294967295
411.93689 -416.83499 20.650999 4294967295
412.51089 -416.862 20.562 4294967295
413.07889 -416.89301 20.656 4294967295
413.59689 -416.91998 20.674999 4294967295
410.75189 -416.72198 17.701 4294967295
411.09088 -416.73898 17.659 4294967295
411.3649 -416.754 17.712999 4294967295
414.9249 -416.95599 18.938999 4294967295
412.0029 -416.767 16.628 4294967295
411.2019 -416.69998 15.144 4294967295
411.6879 -416.72598 15.246 4294967295
411.47589 -416.71201 15.027 4294967295
414.30988 -416.86099 15.342 4294967295
414.4559 -416.867 15.241 4294967295
415.19489 -416.90601 15.336 4294967295
415.90891 -416.94299 15.406 4294967295
410.19489 -416.61798 13.373 4294967295
411.87589 -416.698 13.079 4294967295
411.8439 -416.69199 12.852 4294967295
412.1329 -416.69998 12.456 4294967295
412.1749 -416.698 12.239 4294967295
415.72089 -416.88199 12.491 4294967295
415.1149 -416.84299 11.993 4294967295
412.8779 -416.93698 22.121 4294967295
412.07388 -416.86798 20.57 4294967295
412.63089 -416.89499 20.459 4294967295
411.1189 -416.76599 17.525 4294967295
411.3179 -416.776 17.52 4294967295
414.8399 -416.983 19.084 4294967295
411.3479 -416.763 16.655001 4294967295
412.19788 -416.79498 16.023001 4294967295
411.1879 -416.728 15.137 4294967295
411.50089 -416.73999 14.916 4294967295
412.7049 -416.80798 15.296 4294967295
411.1499 -416.70801 14.089 4294967295
415.28189 -416.94 15.365 4294967295
410.90988 -416.69098 13.793 4294967295
411.50589 -416.71298 13.323 4294967295
411.95789 -416.73599 13.321 4294967295
411.70688 -416.716 12.934 4294967295
411.9129 -416.724 12.754 4294967295
415.95688 -416.93698 13.298 4294967295
413.49188 -416.80099 12.643 4294967295
412.21188 -416.728 12.131 4294967295
413.0199 -416.974 22.275 4294967295
412.1149 -416.89899 20.611 4294967295
410.54089 -416.77399 17.996 4294967295
410.97589 -416.789 17.569 4294967295
414.52689 -417.009 19.900999 4294967295
413.8949 -416.95499 18.652 4294967295
411.60089 -416.80499 16.672001 4294967295
411.9509 -416.81699 16.311001 4294967295
415.22989 -417.01099 17.955 4294967295
412.22888 -416.82599 16.039 4294967295
410.96188 -416.74899 15.267 4294967295
411.73489 -416.78299 15.016 4294967295
411.01489 -416.73999 14.594 4294967295
410.6709 -416.71799 14.343 4294967295
410.93289 -416.72699 14.12 4294967295
410.92688 -416.72299 13.904 4294967295
410.31488 -416.686 13.504 4294967295
411.0239 -416.716 13.204 4294967295
411.5759 -416.741 13.015 4294967295
415.6189 -416.95398 13.552 4294967295
415.64789 -416.94 12.635 4294967295
411.77289 -416.91098 20.701 4294967295
411.88089 -416.91501 20.591999 4294967295
412.25189 -416.93201 20.528 4294967295
414.38989 -417.06299 21.858 4294967295
411.61688 -416.86099 18.235001 4294967295
414.32089 -417.02701 19.958 4294967295
411.19888 -416.82401 17.280001 4294967295
411.26389 -416.82498 17.177 4294967295
413.84088 -416.983 18.805 4294967295
411.3139 -416.823 16.917999 4294967295
412.44589 -416.88498 17.197001 4294967295
411.94489 -416.84698 16.448 4294967295
415.22791 -417.035 17.766001 4294967295
411.77188 -416.81799 15.283 4294967295
411.8989 -416.82401 15.213 4294967295
411.9209 -416.823 15.095 4294967295
410.7699 -416.755 14.491 4294967295
410.5799 -416.742 14.306 4294967295
415.93289 -417.03598 15.754 4294967295
410.36188 -416.71899 13.616 4294967295
410.47888 -416.71899 13.261 4294967295
410.46088 -416.71698 13.16 4294967295
415.8779 -417.005 14.078 4294967295
411.50488 -416.76599 12.999 4294967295
412.30988 -416.79999 12.592 4294967295
412.15588 -416.784 12.123 4294967295
415.27789 -416.93698 11.856 4294967295
414.55789 -417.099 21.76 4294967295
414.5199 -417.09198 21.481001 4294967295
411.53888 -416.87799 17.681999 4294967295
411.30289 -416.85999 17.354 4294967295
414.75388 -417.073 19.639 4294967295
411.59988 -416.86398 16.669001 4294967295
415.74689 -417.10199 18.431 4294967295
412.10989 -416.88199 16.254999 4294967295
412.33389 -416.89301 16.233 4294967295
411.14288 -416.81299 14.994 4294967295
412.04489 -416.86301 15.276 4294967295
410.88989 -416.76999 13.168 4294967295
411.14688 -416.78198 13.128 4294967295
415.75589 -417.02899 14.049 4294967295
415.5379 -416.996 12.77 4294967295
412.1319 -416.97 19.582001 4294967295
410.6059 -416.86798 18.049 4294967295
410.49789 -416.858 17.796 4294967295
410.7149 -416.867 17.666 4294967295
410.90289 -416.87601 17.663 4294967295
411.69788 -416.91299 17.481001 4294967295
413.77789 -417.039 18.757999 4294967295
412.08389 -416.922 16.819 4294967295
412.07788 -416.91599 16.521999 4294967295
411.0589 -416.845 15.312 4294967295
414.43289 -417.03699 16.660999 4294967295
412.06888 -416.89301 15.155 4294967295
410.2999 -416.77399 13.304 4294967295
410.79788 -416.798 13.244 4294967295
411.14688 -416.81299 13.127 4294967295
411.51489 -416.82999 12.998 4294967295
413.3179 -416.918 12.866 4294967295
413.30289 -416.91501 12.738 4294967295
413.11188 -416.90298 12.586 4294967295
415.51089 -417.026 12.765 4294967295
412.1329 -416.84601 12.118 4294967295
415.41388 -417.01099 12.156 4294967295
413.08188 -417.09299 22.334999 4294967295
412.30188 -417.02499 20.570999 4294967295
412.84189 -417.04898 20.431 4294967295
410.49289 -416.88998 17.948999 4294967295
411.0369 -416.909 17.458 4294967295
411.24789 -416.91998 17.462999 4294967295
415.1109 -417.15799 20.105 4294967295
411.86288 -416.953 17.594999 4294967295
411.27588 -416.909 16.743999 4294967295
414.55588 -417.103 18.504 4294967295
412.09589 -416.94901 16.676001 4294967295
411.1059 -416.87399 15.093 4294967295
410.9249 -416.85599 14.551 4294967295
410.84888 -416.84399 14.085 4294967295
411.29388 -416.85098 13.159 4294967295
415.56488 -417.07401 13.691 4294967295
412.56888 -416.90601 12.627 4294967295
412.1969 -416.87601 11.901 4294967295
416.09189 -417.07001 11.895 4294967295
412.4819 -417.061 20.527 4294967295
412.83588 -417.07999 20.643999 4294967295
412.18488 -417.034 19.827 4294967295
410.91589 -416.93201 17.516001 4294967295
413.91589 -417.10098 18.659 4294967295
414.84189 -417.155 19.077 4294967295
414.5799 -417.13498 18.711 4294967295
414.6149 -417.134 18.540001 4294967295
415.49588 -417.181 18.681 4294967295
412.15088 -416.97101 16.132 4294967295
411.0589 -416.905 15.431 4294967295
410.64188 -416.87299 14.762 4294967295
410.56989 -416.862 14.297 4294967295
410.8349 -416.87 13.973 4294967295
410.91089 -416.85999 13.169 4294967295
411.49789 -416.88901 13.099 4294967295
411.71188 -416.896 12.928 4294967295
415.74689 -417.108 13.568 4294967295
411.71588 -416.89301 12.713 4294967295
412.37689 -417.08701 20.645 4294967295
412.74091 -417.104 20.555 4294967295
410.5679 -416.953 18.014 4294967295
413.96088 -417.13699 18.881001 4294967295
414.39389 -417.15298 18.593 4294967295
412.88489 -417.05899 17.464001 4294967295
412.40088 -417.02499 16.856001 4294967295
410.99988 -416.92499 15.042 4294967295
410.55188 -416.89499 14.611 4294967295
410.5889 -416.896 14.519 4294967295
410.6799 -416.89899 14.449 4294967295
410.6929 -416.89798 14.346 4294967295
410.3129 -416.86798 13.693 4294967295
410.49988 -416.87198 13.359 4294967295
410.73288 -416.883 13.324 4294967295
415.87888 -417.16 14.558 4294967295
411.99789 -416.948 13.438 4294967295
411.4819 -416.91901 13.203 4294967295
415.84988 -417.14301 13.588 4294967295
411.56589 -416.914 12.687 4294967295
413.15689 -416.996 12.838 4294967295
412.80988 -416.974 12.542 4294967295
412.0899 -416.935 12.332 4294967295
412.40988 -416.944 11.917 4294967295
415.13489 -417.07999 11.986 4294967295
413.15488 -417.18799 22.415001 4294967295
412.4679 -417.13699 21.429001 4294967295
412.16489 -417.10898 20.656 4294967295
412.0509 -417.08701 19.705 4294967295
412.06989 -417.08499 19.524 4294967295
412.75888 -417.09799 18.228001 4294967295
414.92191 -417.228 19.542999 4294967295
414.35989 -417.186 18.763 4294967295
412.66788 -417.07498 17.171 4294967295
412.24689 -417.048 16.764999 4294967295
410.99091 -416.95999 15.276 4294967295
410.7919 -416.94299 14.831 4294967295
411.1799 -416.957 14.542 4294967295
410.7439 -416.92899 14.152 4294967295
410.4639 -416.90799 13.743 4294967295
410.27588 -416.89499 13.486 4294967295
410.87689 -416.923 13.364 4294967295
410.5199 -416.90201 13.17 4294967295
415.72989 -417.181 14.358 4294967295
411.68588 -416.957 13.032 4294967295
411.86288 -416.96298 12.848 4294967295
411.36188 -416.935 12.651 4294967295
411.46588 -416.939 12.565 4294967295
412.6709 -416.99799 12.523 4294967295
412.23489 -416.97299 12.35 4294967295
412.27588 -416.96799 11.906 4294967295
411.95889 -417.133 20.669001 4294967295
412.56189 -417.16199 20.606001 4294967295
410.6539 -417.02399 18.091 4294967295
410.96188 -417.03101 17.554001 4294967295
411.1279 -417.039 17.527 4294967295
411.49988 -417.056 17.493 4294967295
412.94788 -417.13998 18.184999 4294967295
412.13788 -417.07199 16.555 4294967295
412.03391 -417.05899 16.070999 4294967295
414.71088 -417.21298 17.309999 4294967295
413.3739 -417.10498 14.857 4294967295
413.4769 -417.10898 14.754 4294967295
412.9299 -417.03198 11.838 4294967295
412.46988 -417.20499 21.436001 4294967295
412.1369 -417.15298 19.392 4294967295
411.31589 -417.07999 17.516001 4294967295
412.6879 -417.16 18.18 4294967295
412.19589 -417.11099 16.737 4294967295
411.96988 -417.09198 16.316999 4294967295
412.12689 -417.099 16.261999 4294967295
411.04489 -417.03101 15.426 4294967295
411.03589 -417.02399 15.061 4294967295
410.36288 -416.961 13.321 4294967295
411.00089 -416.99298 13.295 4294967295
415.84189 -417.25198 14.388 4294967295
411.3819 -417.008 13.074 4294967295
411.69189 -417.02298 13.034 4294967295
411.95889 -417.03101 12.756 4294967295
412.73889 -417.06598 12.533 4294967295
413.46088 -417.10098 12.506 4294967295
415.9599 -417.22299 12.353 4294967295
412.12689 -417.02499 11.895 4294967295
413.18988 -417.29099 22.459 4294967295
412.68188 -417.23099 20.504999 4294967295
410.56689 -417.07999 17.857 4294967295
410.71289 -417.08701 17.823 4294967295
410.9259 -417.095 17.683001 4294967295
411.29889 -417.11301 17.66 4294967295
413.91089 -417.26099 18.660999 4294967295
414.3399 -417.28 18.562 4294967295
411.18588 -417.07498 15.751 4294967295
410.9599 -417.05499 15.263 4294967295
410.85889 -417.047 15.095 4294967295
414.37689 -417.23199 15.671 4294967295
413.47189 -417.17398 14.893 4294967295
410.40189 -416.996 13.429 4294967295
412.32889 -417.095 13.64 4294967295
411.46588 -417.043 13.093 4294967295
412.17288 -417.07098 12.68 4294967295
412.4299 -417.08099 12.491 4294967295
412.12189 -417.061 12.226 4294967295
413.00189 -417.09799 11.845 4294967295
410.71988 -417.11398 17.672001 4294967295
411.0769 -417.134 17.802999 4294967295
411.0589 -417.13 17.632 4294967295
411.4679 -417.151 17.629 4294967295
414.74789 -417.349 19.636 4294967295
415.02188 -417.362 19.617001 4294967295
414.2439 -417.30701 18.691 4294967295
412.4949 -417.19199 17.068001 4294967295
410.60489 -417.069 15.435 4294967295
410.67889 -417.06799 15.121 4294967295
410.56689 -417.05499 14.729 4294967295
410.5369 -417.04999 14.498 4294967295
411.8269 -417.11899 14.803 4294967295
411.50589 -417.07199 12.995 4294967295
411.9129 -417.09 12.858 4294967295
412.1969 -417.099 12.571 4294967295
412.3309 -417.104 12.477 4294967295
412.2049 -417.091 12.124 4294967295
416.01489 -417.284 12.359 4294967295
412.27689 -417.091 11.907 4294967295
413.5759 -417.155 11.883 4294967295
413.03189 -417.125 11.726 4294967295
412.2659 -417.271 20.541 4294967295
412.45389 -417.28 20.507 4294967295
412.0759 -417.24698 19.732 4294967295
411.5369 -417.19598 18.339001 4294967295
411.55588 -417.194 18.184999 4294967295
414.9989 -417.38998 19.6 4294967295
413.04691 -417.26599 18.079 4294967295
412.4899 -417.22101 17.065001 4294967295
412.28189 -417.203 16.639 4294967295
411.2099 -417.13199 15.636 4294967295
410.76089 -417.09 14.483 4294967295
410.93088 -417.09799 14.442 4294967295
410.69489 -417.08301 14.241 4294967295
410.72888 -417.08301 14.147 4294967295
410.80289 -417.08499 14.068 4294967295
415.30389 -417.33398 15.531 4294967295
415.49689 -417.32401 14.46 4294967295
411.5289 -417.108 13.322 4294967295
412.11688 -417.13599 13.237 4294967295
412.29889 -417.13498 12.7 4294967295
412.31488 -417.12799 12.247 4294967295
412.47488 -417.332 21.684999 4294967295
412.10291 -417.29401 20.598 4294967295
412.2489 -417.285 19.688 4294967295
411.51889 -417.22198 18.155001 4294967295
411.55688 -417.21298 17.535999 4294967295
414.8699 -417.41599 19.719999 4294967295
413.7049 -417.34 18.708 4294967295
412.9859 -417.28699 17.695999 4294967295
412.88989 -417.27798 17.469999 4294967295
412.91589 -417.27701 17.323 4294967295
412.58789 -417.254 16.968 4294967295
412.4079 -417.241 16.709999 4294967295
411.07489 -417.159 15.816 4294967295
410.71188 -417.125 14.907 4294967295
410.64389 -417.11798 14.652 4294967295
410.86591 -417.117 13.984 4294967295
413.33688 -417.25198 14.706 4294967295
415.7749 -417.384 15.356 4294967295
410.26089 -417.078 13.481 4294967295
410.38089 -417.082 13.324 4294967295
415.69388 -417.36798 14.672 4294967295
412.26788 -417.17599 13.387 4294967295
412.1019 -417.16098 13.005 4294967295
412.06488 -417.15698 12.885 4294967295
412.26489 -417.16599 12.807 4294967295
412.1239 -417.147 12.114 4294967295
413.72488 -417.22198 11.891 4294967295
412.9519 -417.181 11.72 4294967295
411.7359 -417.30899 20.66 4294967295
411.8739 -417.315 20.583 4294967295
412.19888 -417.33301 20.694 4294967295
412.3699 -417.34 20.643 4294967295
412.49988 -417.341 20.332001 4294967295
412.52988 -417.33899 20.148001 4294967295
412.9039 -417.35999 20.275 4294967295
412.09088 -417.30399 19.351 4294967295
410.75089 -417.21399 18.013 4294967295
412.4649 -417.302 18.193001 4294967295
412.6629 -417.311 18.160999 4294967295
412.98889 -417.32498 18.039 4294967295
411.3089 -417.20801 16.077999 4294967295
410.54089 -417.16 15.516 4294967295
410.68188 -417.16199 15.238 4294967295
410.57489 -417.15399 15.067 4294967295
415.43588 -417.40298 15.575 4294967295
413.4249 -417.289 14.735 4294967295
410.38889 -417.11099 13.134 4294967295
411.75388 -417.17499 12.935 4294967295
413.12689 -417.24399 12.956 4294967295
412.44788 -417.198 12.261 4294967295
412.88589 -417.20999 11.715 4294967295
415.7879 -417.34601 11.268 4294967295
411.9259 -417.349 20.638 4294967295
412.03189 -417.33398 19.493 4294967295
412.07288 -417.32999 19.146 4294967295
411.5079 -417.29001 18.486 4294967295
413.7359 -417.405 18.728001 4294967295
413.09088 -417.35599 17.763 4294967295
414.86288 -417.45999 18.697001 4294967295
411.83588 -417.272 16.523001 4294967295
412.8089 -417.328 16.941 4294967295
415.62088 -417.43799 15.305 4294967295
412.12888 -417.229 13.238 4294967295
411.76788 -417.20599 12.938 4294967295
414.50589 -417.34799 13.338 4294967295
412.86389 -417.25998 12.911 4294967295
412.25888 -417.22598 12.692 4294967295
412.4819 -417.23398 12.495 4294967295
413.39688 -417.27899 12.495 4294967295
414.52289 -417.327 12.082 4294967295
411.52188 -417.31799 18.326 4294967295
411.2699 -417.29099 17.481001 4294967295
413.19888 -417.405 18.540001 4294967295
414.29489 -417.46201 18.723 4294967295
411.79388 -417.29999 16.499001 4294967295
412.01688 -417.31 16.485001 4294967295
410.36389 -417.17899 13.61 4294967295
410.1969 -417.16599 13.366 4294967295
415.7319 -417.46201 14.682 4294967295
415.54889 -417.44699 14.314 4294967295
413.1799 -417.30899 13.091 4294967295
412.34488 -417.259 12.591 4294967295
413.5809 -417.31 12.007 4294967295
412.9299 -417.27499 11.837 4294967295
412.70688 -417.26099 11.705 4294967295
411.77988 -417.40201 20.708 4294967295
411.96188 -417.41 20.676001 4294967295
411.98489 -417.38998 19.452 4294967295
410.93689 -417.30701 17.690001 4294967295
411.0889 -417.311 17.499001 4294967295
413.9079 -417.47101 18.657 4294967295
414.3389 -417.48999 18.559999 4294967295
411.78488 -417.32999 16.636 4294967295
415.3779 -417.539 18.417 4294967295
410.50388 -417.24698 15.496 4294967295
410.65088 -417.25299 15.457 4294967295
410.81989 -417.23599 13.966 4294967295
410.29089 -417.20099 13.489 4294967295
410.40189 -417.20599 13.426 4294967295
410.9949 -417.23398 13.394 4294967295
412.48389 -417.30899 13.436 4294967295
411.90588 -417.272 12.965 4294967295
412.50089 -417.29498 12.613 4294967295
412.71988 -417.30399 12.527 4294967295
412.47589 -417.28799 12.263 4294967295
413.47388 -417.332 11.998 4294967295
412.47589 -417.48199 21.687 4294967295
412.71088 -417.48999 21.448 4294967295
413.06488 -417.509 21.569 4294967295
412.38089 -417.45898 20.653999 4294967295
412.36288 -417.45398 20.417999 4294967295
412.41989 -417.45398 20.257999 4294967295
410.91589 -417.33099 17.518999 4294967295
412.78488 -417.44 18.424999 4294967295
414.48889 -417.53101 18.85 4294967295
414.6499 -417.534 18.563999 4294967295
410.49789 -417.26898 15.142 4294967295
410.75589 -417.27399 14.701 4294967295
413.57788 -417.41501 14.786 4294967295
410.35489 -417.22998 13.315 4294967295
415.66989 -417.513 14.503 4294967295
415.69888 -417.51199 14.35 4294967295
413.12689 -417.36499 13.206 4294967295
413.25089 -417.36899 13.104 4294967295
412.72388 -417.33701 12.766 4294967295
413.14188 -417.35199 12.462 4294967295
412.1539 -417.298 12.115 4294967295
413.38489 -417.35599 11.991 4294967295
412.5549 -417.51401 21.525999 4294967295
412.40488 -417.492 20.677 4294967295
412.52188 -417.48801 20.139999 4294967295
410.79288 -417.35699 17.573999 4294967295
413.8609 -417.53 18.813 4294967295
414.5249 -417.561 18.677 4294967295
410.64789 -417.31 15.336 4294967295
410.69788 -417.30701 15.012 4294967295
410.61591 -417.29999 14.86 4294967295
410.6889 -417.297 14.45 4294967295
410.67688 -417.29401 14.337 4294967295
410.69788 -417.29099 14.132 4294967295
411.20288 -417.31598 14.098 4294967295
413.62589 -417.448 14.801 4294967295
410.7739 -417.28598 13.637 4294967295
411.0849 -417.298 13.417 4294967295
413.50189 -417.41901 13.541 4294967295
411.71188 -417.32199 13.034 4294967295
412.2619 -417.33301 12.125 4294967295
412.11591 -417.32401 11.999 4294967295
412.08289 -417.31 11.341 4294967295
415.5079 -417.47699 11.263 4294967295
412.2739 -417.51199 20.327999 4294967295
411.94189 -417.479 19.409 4294967295
412.05588 -417.479 19.128 4294967295
411.54788 -417.44299 18.516001 4294967295
411.2399 -417.409 17.455 4294967295
412.6629 -417.492 18.157 4294967295
411.75388 -417.41901 16.614 4294967295
411.79288 -417.41901 16.493999 4294967295
410.5379 -417.33798 15.393 4294967295
410.92688 -417.34399 14.66 4294967295
410.9429 -417.33499 14.113 4294967295
411.68689 -417.37399 14.265 4294967295
410.46988 -417.298 13.345 4294967295
413.42191 -417.439 13.132 4294967295
413.20889 -417.41699 12.467 4294967295
412.46588 -417.375 12.144 4294967295
412.67389 -417.375 11.583 4294967295
411.9989 -417.50998 19.264999 4294967295
411.6189 -417.47501 18.399 4294967295
411.03989 -417.42999 17.455999 4294967295
412.3989 -417.509 18.139 4294967295
412.84589 -417.53101 18.110001 4294967295
410.70688 -417.38 15.604 4294967295
410.56189 -417.36099 14.943 4294967295
411.08289 -417.383 14.725 4294967295
411.0159 -417.36899 14.138 4294967295
412.76389 -417.461 14.507 4294967295
410.83588 -417.35098 13.653 4294967295
410.8909 -417.35199 13.566 4294967295
415.8479 -417.60999 14.38 4294967295
413.4079 -417.47299 13.386 4294967295
413.3559 -417.46799 13.246 4294967295
413.3139 -417.46298 13.11 4294967295
413.2879 -417.45898 12.978 4294967295
412.71188 -417.423 12.521 4294967295
412.29489 -417.39899 12.35 4294967295
412.5379 -417.41 12.265 4294967295
412.5239 -417.40698 12.148 4294967295
412.9549 -417.41998 11.713 4294967295
411.87888 -417.36301 11.439 4294967295
411.9389 -417.36398 11.334 4294967295
412.3389 -417.57401 20.172001 4294967295
413.44888 -417.63901 20.756001 4294967295
411.7999 -417.521 18.722 4294967295
411.62988 -417.50699 18.406 4294967295
412.54089 -417.54498 18.066999 4294967295
412.66489 -417.547 17.813 4294967295
412.07489 -417.491 16.367001 4294967295
411.04388 -417.41299 14.822 4294967295
410.81088 -417.39099 14.277 4294967295
414.00189 -417.56198 15.067 4294967295
412.82489 -417.495 14.526 4294967295
412.80988 -417.491 14.391 4294967295
413.46689 -417.52499 14.465 4294967295
415.53589 -417.629 14.619 4294967295
415.2359 -417.591 13.314 4294967295
412.6749 -417.45499 12.751 4294967295
412.22791 -417.42599 12.34 4294967295
413.40588 -417.48398 12.362 4294967295
412.33588 -417.427 12.127 4294967295
413.53589 -417.483 11.995 4294967295
413.6579 -417.487 11.877 4294967295
412.11688 -417.40799 11.664 4294967295
411.7789 -417.38498 11.329 4294967295
412.04089 -417.57199 19.298 4294967295
411.99689 -417.565 19.07 4294967295
412.55289 -417.57098 17.903999 4294967295
414.54691 -417.68298 18.681 4294967295
414.8999 -417.698 18.514 4294967295
414.81888 -417.689 18.274 4294967295
410.69888 -417.414 14.34 4294967295
412.2709 -417.49799 14.714 4294967295
411.2879 -417.44098 14.233 4294967295
413.93488 -417.586 15.042 4294967295
415.19489 -417.616 13.305 4294967295
412.8349 -417.48999 12.775 4294967295
412.51089 -417.47101 12.606 4294967295
412.27789 -417.63098 20.323999 4294967295
412.08588 -417.603 19.336 4294967295
412.00589 -417.591 18.892 4294967295
410.75589 -417.505 17.535999 4294967295
410.93689 -417.51099 17.374001 4294967295
411.30789 -417.52798 17.346001 4294967295
412.64389 -417.60199 17.797001 4294967295
414.67389 -417.716 18.566999 4294967295
411.86591 -417.54001 16.531 4294967295
411.9689 -417.54099 16.306 4294967295
410.7099 -417.45801 15.126 4294967295
411.05688 -417.46698 14.71 4294967295
410.91989 -417.457 14.539 4294967295
410.95889 -417.45499 14.333 4294967295
411.0679 -417.45898 14.264 4294967295
412.2739 -417.522 14.464 4294967295
412.51889 -417.53299 14.422 4294967295
413.0629 -417.561 14.47 4294967295
413.67288 -417.57098 13.437 4294967295
413.83188 -417.577 13.336 4294967295
413.04089 -417.52899 12.808 4294967295
412.45889 -417.496 12.598 4294967295
412.10089 -417.47598 12.433 4294967295
412.3399 -417.66098 20.17 4294967295
412.52289 -417.66901 20.129999 4294967295
413.3269 -417.71799 20.643 4294967295
411.48889 -417.58398 18.289 4294967295
410.84988 -417.53699 17.458 4294967295
411.1239 -417.54898 17.363001 4294967295
412.5029 -417.629 18.038 4294967295
412.53589 -417.62799 17.891001 4294967295
410.68988 -417.492 15.47 4294967295
410.68689 -417.487 15.231 4294967295
410.65988 -417.47699 14.761 4294967295
411.66788 -417.52798 14.849 4294967295
411.3399 -417.50699 14.596 4294967295
411.0419 -417.48398 14.144 4294967295
410.9259 -417.46799 13.573 4294967295
411.05688 -417.47299 13.507 4294967295
413.76889 -417.60498 13.457 4294967295
413.6369 -417.595 13.297 4294967295
415.29089 -417.67599 13.321 4294967295
412.12689 -417.504 12.325 4294967295
412.09689 -417.49799 12.1 4294967295
412.1199 -417.495 11.882 4294967295
411.90891 -417.478 11.543 4294967295
412.0329 -417.483 11.44 4294967295
412.10291 -417.655 18.973 4294967295
414.16388 -417.75299 18.816999 4294967295
414.32288 -417.759 18.729 4294967295
412.09488 -417.60599 16.375999 4294967295
410.56189 -417.50598 15.052 4294967295
410.57489 -417.505 14.945 4294967295
411.58588 -417.552 14.814 4294967295
411.35489 -417.53699 14.601 4294967295
411.1579 -417.52298 14.409 4294967295
410.99789 -417.50998 14.127 4294967295
412.1879 -417.57401 14.433 4294967295
413.5249 -417.63998 14.48 4294967295
413.44989 -417.634 14.32 4294967295
413.97888 -417.64398 13.5 4294967295
413.50888 -417.617 13.271 4294967295
415.4079 -417.70999 13.34 4294967295
411.9129 -417.51099 11.757 4294967295
411.87589 -417.49698 11.114 4294967295
412.19888 -417.71399 20.247 4294967295
412.6409 -417.73499 20.238001 4294967295
412.05188 -417.686 19.115999 4294967295
411.12289 -417.60699 17.361 4294967295
411.94089 -417.63199 16.573999 4294967295
410.8009 -417.55701 15.529 4294967295
410.6969 -417.54001 14.889 4294967295
413.93188 -417.72299 16.252001 4294967295
410.8399 -417.54401 14.728 4294967295
413.94388 -417.66998 13.356 4294967295
413.4429 -417.64099 13.128 4294967295
411.9899 -417.55099 12.088 4294967295
415.32489 -417.711 11.985 4294967295
412.5069 -417.74799 19.702999 4294967295
412.5029 -417.74399 19.500999 4294967295
411.7179 -417.69 18.65 4294967295
411.20889 -417.63901 17.271999 4294967295
412.31189 -417.70099 17.736 4294967295
413.0929 -417.72998 17.253 4294967295
411.4379 -417.62399 15.875 4294967295
411.5639 -417.60999 14.804 4294967295
412.1239 -417.63 14.409 4294967295
412.6459 -417.651 14.206 4294967295
412.6319 -417.64798 14.076 4294967295
413.58588 -417.69501 14.085 4294967295
413.22189 -417.65799 13.086 4294967295
413.30389 -417.65799 12.848 4294967295
412.2139 -417.599 12.559 4294967295
411.99789 -417.57599 11.87 4294967295
411.8479 -417.55899 11.325 4294967295
411.7999 -417.552 11.113 4294967295
412.46088 -417.784 20.282 4294967295
411.63089 -417.71201 18.576 4294967295
411.62689 -417.70499 18.226999 4294967295
410.91989 -417.65698 17.51 4294967295
412.26688 -417.733 18.035999 4294967295
412.2739 -417.72998 17.872999 4294967295
412.71188 -417.75101 17.839001 4294967295
414.36188 -417.84799 18.750999 4294967295
415.38489 -417.89099 18.406 4294967295
411.98489 -417.68698 16.311001 4294967295
411.40689 -417.64798 15.727 4294967295
411.24988 -417.62299 14.79 4294967295
411.5159 -417.63498 14.783 4294967295
412.35489 -417.67798 14.87 4294967295
412.6499 -417.673 13.831 4294967295
412.57788 -417.664 13.566 4294967295
415.07788 -417.78799 13.728 4294967295
413.12988 -417.677 12.818 4294967295
414.74789 -417.72 10.962 4294967295
413.38089 -417.862 20.688 4294967295
412.3139 -417.78799 19.532 4294967295
411.49689 -417.72501 18.291 4294967295
411.53989 -417.72501 18.158001 4294967295
411.61389 -417.72598 18.049 4294967295
412.1149 -417.74799 17.924999 4294967295
412.8989 -417.784 17.794001 4294967295
414.50888 -417.87799 18.653 4294967295
414.61688 -417.88098 18.528 4294967295
414.69888 -417.88199 18.386999 4294967295
411.75888 -417.70398 16.465 4294967295
411.3559 -417.672 15.829 4294967295
411.34088 -417.66901 15.691 4294967295
411.00888 -417.634 14.686 4294967295
411.2829 -417.64499 14.569 4294967295
412.4549 -417.69598 14.27 4294967295
412.67389 -417.69598 13.713 4294967295
413.09589 -417.70499 13.061 4294967295
412.90189 -417.69 12.781 4294967295
412.2049 -417.65201 12.555 4294967295
411.91888 -417.61099 11.111 4294967295
414.8739 -417.746 10.677 4294967295
412.27789 -417.81598 19.698999 4294967295
411.5249 -417.75699 18.487 4294967295
411.1109 -417.71799 17.502001 4294967295
412.1619 -417.78101 18.128 4294967295
412.5629 -417.793 17.738001 4294967295
415.31589 -417.93799 18.365 4294967295
412.0119 -417.737 16.184999 4294967295
410.8399 -417.66699 15.426 4294967295
410.5379 -417.64499 15.036 4294967295
411.02689 -417.65799 14.466 4294967295
412.53391 -417.73898 14.939 4294967295
412.25488 -417.71399 14.328 4294967295
413.93988 -417.80399 14.748 4294967295
412.46088 -417.716 13.9 4294967295
412.5199 -417.71698 13.794 4294967295
412.87488 -417.71799 12.897 4294967295
413.0119 -417.72198 12.798 4294967295
412.4169 -417.69 12.586 4294967295
412.15988 -417.67499 12.436 4294967295
412.10388 -417.66998 12.317 4294967295
412.20688 -417.65201 11.109 4294967295
414.8439 -417.776 10.96 4294967295
412.5249 -417.86899 20.34 4294967295
412.7059 -417.87698 20.295 4294967295
411.3399 -417.76099 17.674999 4294967295
412.55188 -417.82098 17.731001 4294967295
414.5769 -417.93298 18.502001 4294967295
413.04889 -417.83798 17.386999 4294967295
411.92191 -417.75998 16.135 4294967295
410.72791 -417.686 15.248 4294967295
413.95789 -417.87 16.742001 4294967295
411.63788 -417.71799 14.591 4294967295
411.12488 -417.68298 14.059 4294967295
412.55289 -417.75198 14.05 4294967295
415.02988 -417.86499 13.716 4294967295
412.54889 -417.72501 12.605 4294967295
411.6889 -417.67899 12.371 4294967295
411.98288 -417.68799 12.083 4294967295
412.0459 -417.68698 11.87 4294967295
411.7489 -417.66599 11.531 4294967295
411.8959 -417.67099 11.43 4294967295
411.90689 -417.66998 11.323 4294967295
411.49289 -417.81299 18.459999 4294967295
411.7489 -417.81699 17.987 4294967295
412.10388 -417.83301 17.917999 4294967295
412.34589 -417.841 17.757 4294967295
412.65289 -417.85699 17.799 4294967295
411.76389 -417.78598 16.326 4294967295
411.12689 -417.741 15.578 4294967295
410.53391 -417.70099 14.921 4294967295
410.65891 -417.70599 14.868 4294967295
410.6839 -417.70499 14.768 4294967295
410.9209 -417.71399 14.648 4294967295
410.85889 -417.70801 14.509 4294967295
411.6669 -417.74899 14.603 4294967295
412.25388 -417.77399 14.452 4294967295
411.9559 -417.75598 14.228 4294967295
412.63388 -417.77399 13.457 4294967295
413.13089 -417.79498 13.319 4294967295
411.69189 -417.70999 12.478 4294967295
412.03888 -417.72198 12.199 4294967295
412.10788 -417.70499 11.109 4294967295
413.32089 -417.76099 10.982 4294967295
412.19989 -417.89899 19.629999 4294967295
412.2879 -417.901 19.51 4294967295
411.5899 -417.84198 18.198 4294967295
411.64188 -417.84198 18.070999 4294967295
413.0249 -417.90201 17.707001 4294967295
411.92889 -417.82999 16.709999 4294967295
411.94189 -417.82001 16.146999 4294967295
414.10089 -417.93698 16.815001 4294967295
415.2399 -417.995 17.023001 4294967295
411.5289 -417.76999 14.549 4294967295
411.0549 -417.742 14.254 4294967295
412.97488 -417.80899 12.915 4294967295
411.5159 -417.728 12.347 4294967295
411.89288 -417.733 11.644 4294967295
412.1449 -417.73898 11.328 4294967295
414.8389 -417.858 10.818 4294967295
411.3949 -417.86398 18.378 4294967295
412.7399 -417.939 18.924 4294967295
412.75488 -417.91998 17.868 4294967295
412.96588 -417.92599 17.667999 4294967295
412.8689 -417.914 17.278999 4294967295
411.77789 -417.84399 16.334 4294967295
410.8009 -417.77701 15.285 4294967295
410.6489 -417.76599 15.091 4294967295
414.3699 -417.97598 16.780001 4294967295
411.26489 -417.77899 14.219 4294967295
412.1279 -417.82401 14.407 4294967295
412.15588 -417.823 14.295 4294967295
413.16489 -417.84799 13.072 4294967295
415.10388 -417.922 12.11 4294967295
415.23788 -417.92599 11.974 4294967295
412.35388 -417.776 11.332 4294967295
412.16388 -417.76099 10.998 4294967295
414.9559 -417.88498 10.529 4294967295
412.46588 -417.96399 19.466999 4294967295
411.5029 -417.89499 18.297001 4294967295
412.08688 -417.922 18.243 4294967295
412.1109 -417.91998 18.091 4294967295
412.2319 -417.92099 17.843 4294967295
414.53989 -418.04401 18.48 4294967295
411.73288 -417.87 16.448 4294967295
410.9639 -417.80798 15.129 4294967295
415.33588 -418.05399 17.068001 4294967295
412.5979 -417.866 14.063 4294967295
413.13889 -417.87 12.942 4294967295
412.8909 -417.85498 12.777 4294967295
411.58188 -417.78699 12.46 4294967295
411.68988 -417.78598 12.158 4294967295
414.91989 -417.91098 10.673 4294967295
412.83789 -418.01099 19.584 4294967295
412.5629 -417.983 18.787001 4294967295
412.72388 -417.96201 17.351 4294967295
411.94189 -417.90399 16.285 4294967295
410.66489 -417.827 15.452 4294967295
415.50989 -418.095 17.330999 4294967295
415.47488 -418.086 16.952 4294967295
411.6579 -417.85098 14.243 4294967295
412.20889 -417.879 14.311 4294967295
412.2529 -417.87698 14.081 4294967295
412.2059 -417.87198 13.946 4294967295
412.5069 -417.88498 13.912 4294967295
412.52188 -417.879 13.55 4294967295
412.7049 -417.88599 13.472 4294967295
411.5079 -417.80798 12.344 4294967295
415.15689 -417.974 11.968 4294967295
412.1889 -418.008 19.618999 4294967295
411.6889 -417.95801 18.274 4294967295
412.55289 -418.00598 18.594999 4294967295
412.77188 -418.005 18.048 4294967295
411.81589 -417.92999 16.496 4294967295
412.08789 -417.93698 16.224001 4294967295
411.31589 -417.86398 14.349 4294967295
411.4679 -417.86798 14.176 4294967295
412.50388 -417.91 13.787 4294967295
415.0159 -418.03299 14.011 4294967295
413.97888 -417.97101 13.357 4294967295
412.32089 -417.866 12.002 4294967295
413.15088 -417.905 11.954 4294967295
413.7049 -417.927 11.741 4294967295
411.75989 -417.83099 11.528 4294967295
412.21289 -417.83701 10.774 4294967295
412.21188 -418.039 19.639 4294967295
411.8269 -417.996 18.384001 4294967295
412.81888 -418.03699 18.08 4294967295
412.76688 -418.03 17.872999 4294967295
412.73889 -418.01898 17.358 4294967295
410.6929 -417.883 15.346 4294967295
410.9249 -417.89099 15.227 4294967295
414.2789 -418.07999 16.733 4294967295
410.91589 -417.87698 14.53 4294967295
411.06488 -417.883 14.479 4294967295
414.35788 -418.06299 15.642 4294967295
412.11789 -417.92499 14.038 4294967295
412.13489 -417.92398 13.924 4294967295
414.9469 -418.05298 13.696 4294967295
414.0289 -418.00299 13.366 4294967295
413.28488 -417.96201 13.092 4294967295
413.26288 -417.95801 12.961 4294967295
411.30188 -417.853 12.314 4294967295
412.68588 -417.91299 12.034 4294967295
412.16489 -417.86398 10.776 4294967295
412.7229 -418.08798 19.485001 4294967295
412.49689 -418.06198 18.733 4294967295
413.9679 -418.13498 18.870001 4294967295
412.03088 -417.996 16.476 4294967295
411.0029 -417.92099 15.146 4294967295
410.87088 -417.90698 14.736 4294967295
411.31989 -417.923 14.465 4294967295
411.91089 -417.944 14.091 4294967295
414.95889 -418.086 13.997 4294967295
415.17688 -418.08899 13.592 4294967295
413.76489 -418.01401 13.18 4294967295
411.66489 -417.90298 12.577 4294967295
411.53589 -417.89398 12.451 4294967295
411.68588 -417.89499 12.154 4294967295
411.76688 -417.89499 11.951 4294967295
412.0329 -417.90601 11.866 4294967295
411.82388 -417.89398 11.743 4294967295
411.88788 -417.89301 11.533 4294967295
412.08789 -417.89398 11.105 4294967295
412.09189 -417.88998 10.887 4294967295
412.36188 -418.10001 19.572001 4294967295
412.50388 -418.10498 19.497 4294967295
413.4809 -418.15601 19.700001 4294967295
412.33188 -418.06598 17.910999 4294967295
412.86688 -418.09198 17.940001 4294967295
412.95889 -418.091 17.660999 4294967295
410.8089 -417.94501 15.406 4294967295
415.1969 -418.18399 16.997999 4294967295
411.2099 -417.95599 15.003 4294967295
411.44589 -417.953 14.281 4294967295
411.72388 -417.96399 14.146 4294967295
411.76889 -417.94 12.81 4294967295
413.3389 -418.01801 12.973 4294967295
413.46289 -418.021 12.866 4294967295
412.40689 -417.95499 12.008 4294967295
411.93088 -417.92899 11.857 4294967295
415.16489 -418.08398 11.965 4294967295
412.1069 -417.92899 11.432 4294967295
412.58389 -417.94998 11.332 4294967295
415.26089 -418.06299 10.656 4294967295
415.22589 -418.05899 10.511 4294967295
411.6329 -418.07001 18.573999 4294967295
411.6799 -418.06598 18.266001 4294967295
413.25388 -418.146 18.561001 4294967295
413.90689 -418.17899 18.638 4294967295
412.71188 -418.09399 17.18 4294967295
412.88589 -418.10098 17.125 4294967295
412.13989 -418.05399 16.539 4294967295
411.28888 -417.99698 15.66 4294967295
411.0549 -417.979 15.29 4294967295
415.1879 -418.207 16.995001 4294967295
415.3819 -418.215 16.907 4294967295
411.0899 -417.96698 14.601 4294967295
412.3779 -418.013 13.872 4294967295
412.54788 -418.01999 13.797 4294967295
413.5499 -418.052 13.01 4294967295
412.29889 -417.97299 11.998 4294967295
411.76089 -417.94299 11.738 4294967295
413.6879 -418.03101 11.61 4294967295
412.5509 -417.974 11.446 4294967295
412.61288 -417.97501 11.333 4294967295
412.2439 -417.95599 11.215 4294967295
412.58688 -418.14499 18.802 4294967295
413.86288 -418.20499 18.798 4294967295
412.90488 -418.12399 16.978001 4294967295
410.96088 -418.00101 15.364 4294967295
415.3129 -418.23898 17.052999 4294967295
411.1149 -417.99799 14.843 4294967295
412.19089 -418.034 14.059 4294967295
412.17288 -418.03 13.933 4294967295
412.46689 -418.04401 13.897 4294967295
412.78189 -418.05499 13.735 4294967295
411.52789 -417.97699 12.765 4294967295
411.68488 -417.983 12.686 4294967295
412.6459 -418.00699 11.565 4294967295
412.99988 -418.022 11.46 4294967295
412.4339 -418.17999 19.636 4294967295
411.51089 -418.11099 18.299999 4294967295
411.9339 -418.12698 18.124001 4294967295
412.09888 -418.13098 17.910999 4294967295
412.73788 -418.15698 17.684999 4294967295
412.92889 -418.16199 17.475 4294967295
412.0759 -418.10001 16.357 4294967295
412.0419 -418.095 16.197001 4294967295
411.42288 -418.03699 14.739 4294967295
411.96689 -418.04599 13.872 4294967295
412.69089 -418.082 13.96 4294967295
415.27289 -418.194 13.458 4294967295
414.3349 -418.14398 13.145 4294967295
411.39188 -417.991 12.427 4294967295
412.13989 -418.01801 11.983 4294967295
414.50589 -418.12 11.508 4294967295
415.12589 -418.13 10.516 4294967295
412.43588 -418.20898 19.638 4294967295
412.80588 -418.22501 19.555 4294967295
413.49789 -418.26099 19.715 4294967295
412.02289 -418.16501 18.364 4294967295
412.07089 -418.16098 18.058001 4294967295
413.2999 -418.229 18.593 4294967295
412.76489 -418.18399 17.537001 4294967295
412.81488 -418.17999 17.243 4294967295
415.2739 -418.306 17.766001 4294967295
411.1149 -418.065 15.443 4294967295
411.1459 -418.065 15.336 4294967295
411.87088 -418.091 14.924 4294967295
411.49789 -418.05899 14.184 4294967295
411.74988 -418.07098 14.154 4294967295
412.85291 -418.117 13.879 4294967295
412.8269 -418.11301 13.746 4294967295
411.74988 -418.04498 12.805 4294967295
411.3909 -418.01898 12.324 4294967295
412.15988 -418.04999 12.095 4294967295
411.89288 -418.035 11.96 4294967295
412.4509 -418.05399 11.555 4294967295
413.54788 -418.10098 11.351 4294967295
413.56189 -418.28799 19.561001 4294967295
413.1539 -418.25598 18.861 4294967295
413.75888 -418.27798 18.538 4294967295
412.9389 -418.21201 17.156 4294967295
414.2999 -418.26801 16.742001 4294967295
411.25388 -418.09198 15.023 4294967295
411.11591 -418.082 14.842 4294967295
411.83289 -418.11398 14.784 4294967295
411.3869 -418.08798 14.489 4294967295
411.51788 -418.09 14.306 4294967295
411.9119 -418.10498 14.09 4294967295
411.6879 -418.091 13.903 4294967295
412.85989 -418.14999 14.136 4294967295
412.57288 -418.12299 13.437 4294967295
415.22488 -418.25101 13.6 4294967295
411.60388 -418.06299 12.671 4294967295
412.2099 -418.08499 12.324 4294967295
412.23489 -418.06598 11.324 4294967295
413.6839 -418.133 11.225 4294967295
412.30289 -418.258 19.719999 4294967295
412.4819 -418.26199 19.479 4294967295
413.62189 -418.31799 19.608 4294967295
412.02789 -418.216 18.195 4294967295
413.2319 -418.28699 18.917999 4294967295
413.14188 -418.27701 18.665001 4294967295
413.7179 -418.30499 18.698 4294967295
413.8299 -418.30798 18.586 4294967295
414.50488 -418.30298 16.673 4294967295
415.65689 -418.36398 17.031 4294967295
411.1619 -418.108 14.745 4294967295
411.7709 -418.13901 14.882 4294967295
412.65189 -418.155 13.577 4294967295
415.2099 -418.276 13.597 4294967295
411.82288 -418.08899 12.167 4294967295
412.27789 -418.10898 12.106 4294967295
411.68689 -418.078 11.941 4294967295
411.7659 -418.078 11.736 4294967295
412.1889 -418.07898 10.771 4294967295
412.66788 -418.29599 19.440001 4294967295
411.52289 -418.22 18.311001 4294967295
413.21588 -418.315 19.098 4294967295
413.8219 -418.32898 18.395 4294967295
415.34888 -418.38998 17.806 4294967295
414.4169 -418.33301 17.139999 4294967295
414.29788 -418.323 16.909 4294967295
411.52988 -418.146 14.544 4294967295
411.64288 -418.146 14.234 4294967295
413.69888 -418.25299 14.807 4294967295
411.70389 -418.13998 13.793 4294967295
412.93988 -418.186 13.149 4294967295
411.49588 -418.10999 12.758 4294967295
411.5419 -418.10599 12.449 4294967295
411.68588 -418.11099 12.364 4294967295
412.14789 -418.13199 12.316 4294967295
412.09589 -418.11499 11.539 4294967295
413.60788 -418.37 19.599001 4294967295
413.1929 -418.34 19.080999 4294967295
413.22989 -418.33499 18.73 4294967295
413.4639 -418.34601 18.711 4294967295
412.75089 -418.289 17.528999 4294967295
412.93188 -418.293 17.313999 4294967295
413.0939 -418.29898 17.249001 4294967295
413.04388 -418.29001 16.899 4294967295
412.1539 -418.23599 16.257999 4294967295
411.3439 -418.18698 15.688 4294967295
414.37988 -418.35699 17.122 4294967295
415.67389 -418.41599 17.041 4294967295
412.4259 -418.22998 15.288 4294967295
411.6059 -418.177 14.574 4294967295
411.6839 -418.134 12.152 4294967295
411.85989 -418.134 11.743 4294967295
412.15289 -418.13998 11.322 4294967295
412.15891 -418.13098 10.882 4294967295
412.83688 -418.35599 19.384001 4294967295
411.7179 -418.28198 18.299 4294967295
413.6449 -418.383 18.839001 4294967295
412.90588 -418.32098 17.462 4294967295
413.02789 -418.319 17.049 4294967295
413.04691 -418.314 16.745001 4294967295
411.3219 -418.19699 14.934 4294967295
412.00989 -418.228 14.856 4294967295
412.91888 -418.25198 13.897 4294967295
413.02689 -418.255 13.798 4294967295
412.56088 -418.22598 13.434 4294967295
412.91089 -418.23599 13.143 4294967295
411.6489 -418.164 12.465 4294967295
411.5379 -418.15698 12.344 4294967295
411.58188 -418.151 11.932 4294967295
412.2269 -418.164 11.102 4294967295
412.7879 -418.379 19.346001 4294967295
413.0069 -418.38901 19.327 4294967295
412.7709 -418.34601 17.709 4294967295
412.9599 -418.33701 16.853001 4294967295
412.9899 -418.336 16.714001 4294967295
414.3909 -418.40298 16.789 4294967295
415.15488 -418.44299 16.981001 4294967295
412.60291 -418.28598 15.094 4294967295
411.80389 -418.224 13.824 4294967295
412.9209 -418.28 14.026 4294967295
411.52588 -418.177 12.134 4294967295
412.02689 -418.19299 11.754 4294967295
412.83688 -418.41 19.386999 4294967295
